2.113859071643009013e+00 1.281300474141309209e+00 2.547355175664332450e+00 2.113859071643009013e+00 1.281300474141309209e+00 2.547355175664332450e+00
2.141042323114966894e+00 8.595930783921461593e-01 2.507355175664332414e+00 2.141042323114966894e+00 8.595930783921461593e-01 2.507355175664332414e+00
2.251233307082436408e+00 1.580424518760811026e+00 2.487355175664332396e+00 2.251233307082436408e+00 1.580424518760811026e+00 2.487355175664332396e+00
2.699377244788050412e+00 9.038457707115989948e-01 2.467355175664332378e+00 2.699377244788050412e+00 9.038457707115989948e-01 2.467355175664332378e+00
1.841703106488620456e+00 1.120488324697486604e+00 2.447355175664332361e+00 1.841703106488620456e+00 1.120488324697486604e+00 2.447355175664332361e+00
2.679605681696780373e+00 1.569436595926245959e+00 2.427355175664332343e+00 2.679605681696780373e+00 1.569436595926245959e+00 2.427355175664332343e+00
2.343396630171298956e+00 6.160893004778035253e-01 2.407355175664332325e+00 2.343396630171298956e+00 6.160893004778035253e-01 2.407355175664332325e+00
1.926893136601983914e+00 1.597871103770042156e+00 2.387355175664332307e+00 1.926893136601983914e+00 1.597871103770042156e+00 2.387355175664332307e+00
2.943607843703626159e+00 1.132764055342430520e+00 2.367355175664332290e+00 2.943607843703626159e+00 1.132764055342430520e+00 2.367355175664332290e+00
2.433598740151025730e+00 1.827301920526479106e+00 2.327355175664332254e+00 2.433598740151025730e+00 1.827301920526479106e+00 2.327355175664332254e+00
2.091676079837802682e+00 4.713048057946760405e-01 2.247355175664332183e+00 2.091676079837802682e+00 4.713048057946760405e-01 2.247355175664332183e+00
2.027460742418597750e+00 1.870033941930116184e+00 2.227355175664332165e+00 2.027460742418597750e+00 1.870033941930116184e+00 2.227355175664332165e+00
3.041911504062194460e+00 8.591814966775410678e-01 2.207355175664332148e+00 3.041911504062194460e+00 8.591814966775410678e-01 2.207355175664332148e+00
1.580852185359610251e+00 9.210081333534303472e-01 2.187355175664332130e+00 1.580852185359610251e+00 9.210081333534303472e-01 2.187355175664332130e+00
2.722188186924528353e+00 1.880524091105319595e+00 2.167355175664332556e+00 2.722188186924528353e+00 1.880524091105319595e+00 2.167355175664332556e+00
1.638875261519903148e+00 1.639841288724644075e+00 2.127355175664332521e+00 1.638875261519903148e+00 1.639841288724644075e+00 2.127355175664332521e+00
1.791243862149815902e+00 5.046881023551146317e-01 2.087355175664332485e+00 1.791243862149815902e+00 5.046881023551146317e-01 2.087355175664332485e+00
2.277864096136852368e+00 2.043781425673614649e+00 2.067355175664332467e+00 2.277864096136852368e+00 2.043781425673614649e+00 2.067355175664332467e+00
1.439134141234581277e+00 1.196541833789229736e+00 2.027355175664332432e+00 1.439134141234581277e+00 1.196541833789229736e+00 2.027355175664332432e+00
2.228951902070839708e+00 2.674733868813856663e-01 1.987355175664332174e+00 2.228951902070839708e+00 2.674733868813856663e-01 1.987355175664332174e+00
1.790458426171382733e+00 1.918563791595862655e+00 1.967355175664332378e+00 1.790458426171382733e+00 1.918563791595862655e+00 1.967355175664332378e+00
1.528900539527873859e+00 6.913045176115575341e-01 1.927355175664332343e+00 1.528900539527873859e+00 6.913045176115575341e-01 1.927355175664332343e+00
3.230979856545976858e+00 1.518268006153605798e+00 1.847355175664332272e+00 3.230979856545976858e+00 1.518268006153605798e+00 1.847355175664332272e+00
1.899219957576266937e+00 3.075276561663475849e-01 1.827355175664332254e+00 1.899219957576266937e+00 3.075276561663475849e-01 1.827355175664332254e+00
2.064422459734686299e+00 2.109453151718905239e+00 1.807355175664332236e+00 2.064422459734686299e+00 2.109453151718905239e+00 1.807355175664332236e+00
1.367915337315421809e+00 9.874844691508795069e-01 1.767355175664332201e+00 1.367915337315421809e+00 9.874844691508795069e-01 1.767355175664332201e+00
1.590278226144271168e+00 1.831867015675338717e+00 1.707355175664332370e+00 1.590278226144271168e+00 1.831867015675338717e+00 1.707355175664332370e+00
1.608206338554907688e+00 4.894756828424665640e-01 1.667355175664332112e+00 1.608206338554907688e+00 4.894756828424665640e-01 1.667355175664332112e+00
2.403384960233877266e+00 2.168713909048255228e+00 1.647355175664332094e+00 2.403384960233877266e+00 2.168713909048255228e+00 1.647355175664332094e+00
2.087556270527020530e+00 2.040892742161889428e-01 1.567355175664332245e+00 2.087556270527020530e+00 2.040892742161889428e-01 1.567355175664332245e+00
2.644272885940210482e+00 2.301736946567511932e-01 1.467355175664332156e+00 2.644272885940210482e+00 2.301736946567511932e-01 1.467355175664332156e+00
1.466261282340270311e+00 1.657282103550072661e+00 1.447355175664332583e+00 1.466261282340270311e+00 1.657282103550072661e+00 1.447355175664332583e+00
3.294025545504580155e+00 1.401240459472320454e+00 1.427355175664332343e+00 3.294025545504580155e+00 1.401240459472320454e+00 1.427355175664332343e+00
3.089322904972639172e+00 5.555368764163005624e-01 1.367355175664332290e+00 3.089322904972639172e+00 5.555368764163005624e-01 1.367355175664332290e+00
3.007325560589386271e+00 1.867463850314908136e+00 1.327355175664332254e+00 3.007325560589386271e+00 1.867463850314908136e+00 1.327355175664332254e+00
1.707172793417815360e+00 1.898751997009421988e+00 1.287355175664332219e+00 1.707172793417815360e+00 1.898751997009421988e+00 1.287355175664332219e+00
3.276001192386672312e+00 1.061845691168882500e+00 1.267355175664332201e+00 3.276001192386672312e+00 1.061845691168882500e+00 1.267355175664332201e+00
2.806435169192491141e+00 3.750539344345125148e-01 1.207355175664332148e+00 2.806435169192491141e+00 3.750539344345125148e-01 1.207355175664332148e+00
1.996514727447525228e+00 3.354997978764072686e-01 1.147355175664332094e+00 1.996514727447525228e+00 3.354997978764072686e-01 1.147355175664332094e+00
2.016396253427408691e+00 2.009182849114532932e+00 1.127355175664332076e+00 2.016396253427408691e+00 2.009182849114532932e+00 1.127355175664332076e+00
3.149537784385495698e+00 1.254490384588700103e+00 1.007355175664332414e+00 3.149537784385495698e+00 1.254490384588700103e+00 1.007355175664332414e+00
2.323227880251479416e+00 1.966087873920633555e+00 9.673551756643321564e-01 2.323227880251479416e+00 1.966087873920633555e+00 9.673551756643321564e-01
2.916047725219104159e+00 1.631814384993170330e+00 9.073551756643324362e-01 2.916047725219104159e+00 1.631814384993170330e+00 9.073551756643324362e-01
2.862216670927701490e+00 1.346458461706606879e+00 7.473551756643320720e-01 2.862216670927701490e+00 1.346458461706606879e+00 7.473551756643320720e-01
8.116687915754290383e-01 6.353121498215872354e-01 1.966218348070422506e+00 8.116687915754290383e-01 6.353121498215872354e-01 1.966218348070422506e+00
5.425372102120264994e-01 8.743583737281855894e-01 1.946218348070422488e+00 5.425372102120264994e-01 8.743583737281855894e-01 1.946218348070422488e+00
1.060354576939010585e+00 8.540665245942010708e-01 1.926218348070422470e+00 1.060354576939010585e+00 8.540665245942010708e-01 1.926218348070422470e+00
5.697204616839848246e-01 4.526509779790227062e-01 1.906218348070422453e+00 5.697204616839848246e-01 4.526509779790227062e-01 1.906218348070422453e+00
6.799114456514542271e-01 1.173482418347687517e+00 1.886218348070422657e+00 6.799114456514542271e-01 1.173482418347687517e+00 1.886218348070422657e+00
1.128055383357068120e+00 4.969036702984754861e-01 1.866218348070422639e+00 1.128055383357068120e+00 4.969036702984754861e-01 1.866218348070422639e+00
2.703812450576381643e-01 7.135462242843630953e-01 1.846218348070422621e+00 2.703812450576381643e-01 7.135462242843630953e-01 1.846218348070422621e+00
1.108283820265798303e+00 1.162494495513122450e+00 1.826218348070422604e+00 1.108283820265798303e+00 1.162494495513122450e+00 1.826218348070422604e+00
7.720747687403166637e-01 2.091472000646800167e-01 1.806218348070422586e+00 7.720747687403166637e-01 2.091472000646800167e-01 1.806218348070422586e+00
3.555712751710015662e-01 1.190929003356918647e+00 1.786218348070422568e+00 3.555712751710015662e-01 1.190929003356918647e+00 1.786218348070422568e+00
1.372285982272643645e+00 7.258219549293071227e-01 1.766218348070422550e+00 1.372285982272643645e+00 7.258219549293071227e-01 1.766218348070422550e+00
8.622768787200435492e-01 1.420359820113355598e+00 1.726218348070422515e+00 8.622768787200435492e-01 1.420359820113355598e+00 1.726218348070422515e+00
7.685900706093196089e-02 9.355139941727125263e-01 1.686218348070422479e+00 7.685900706093196089e-02 9.355139941727125263e-01 1.686218348070422479e+00
5.203542184068202792e-01 6.436270538155253185e-02 1.646218348070422444e+00 5.203542184068202792e-01 6.436270538155253185e-02 1.646218348070422444e+00
1.470589642631212168e+00 4.522393962644176146e-01 1.606218348070422408e+00 1.470589642631212168e+00 4.522393962644176146e-01 1.606218348070422408e+00
9.530323928627959518e-03 5.140660329403068385e-01 1.586218348070422390e+00 9.530323928627959518e-03 5.140660329403068385e-01 1.586218348070422390e+00
9.535168483519878002e-01 -3.187213773539410155e-02 1.546218348070422577e+00 9.535168483519878002e-01 -3.187213773539410155e-02 1.546218348070422577e+00
6.755340008892085635e-02 1.232899188311520566e+00 1.526218348070422781e+00 6.755340008892085635e-02 1.232899188311520566e+00 1.526218348070422781e+00
6.576300406398575271e-01 -1.394687135317378424e-01 1.386218348070422435e+00 6.576300406398575271e-01 -1.394687135317378424e-01 1.386218348070422435e+00
2.191365647404005523e-01 1.511621691182739147e+00 1.366218348070422639e+00 2.191365647404005523e-01 1.511621691182739147e+00 1.366218348070422639e+00
-4.242132190310843320e-02 2.843624171984340254e-01 1.326218348070422604e+00 -4.242132190310843320e-02 2.843624171984340254e-01 1.326218348070422604e+00
1.028814070687383397e+00 1.671851795133037832e+00 1.306218348070422586e+00 1.028814070687383397e+00 1.671851795133037832e+00 1.306218348070422586e+00
1.177058614758363708e+00 -8.785472554629225606e-02 1.286218348070422790e+00 1.177058614758363708e+00 -8.785472554629225606e-02 1.286218348070422790e+00
3.278980961452845899e-01 -9.941444424677592373e-02 1.226218348070422515e+00 3.278980961452845899e-01 -9.941444424677592373e-02 1.226218348070422515e+00
-2.034065241155604831e-01 5.805423687377559983e-01 1.166218348070422461e+00 -2.034065241155604831e-01 5.805423687377559983e-01 1.166218348070422461e+00
1.895636471328887573e-02 1.424924915262215208e+00 1.106218348070422630e+00 1.895636471328887573e-02 1.424924915262215208e+00 1.106218348070422630e+00
3.688447712392528555e-02 8.253358242934305533e-02 1.066218348070422373e+00 3.688447712392528555e-02 8.253358242934305533e-02 1.066218348070422373e+00
8.320630988028948627e-01 1.761771808635131720e+00 1.046218348070422355e+00 8.320630988028948627e-01 1.761771808635131720e+00 1.046218348070422355e+00
5.162344090960381271e-01 -2.028528261969345658e-01 9.662183480704225058e-01 5.162344090960381271e-01 -2.028528261969345658e-01 9.662183480704225058e-01
-1.554052963531699083e-01 3.716627017113270370e-01 9.062183480704224525e-01 -1.554052963531699083e-01 3.716627017113270370e-01 9.062183480704224525e-01
1.168383096791097087e+00 1.675401306993286266e+00 8.862183480704224348e-01 1.168383096791097087e+00 1.675401306993286266e+00 8.862183480704224348e-01
1.072951024509228191e+00 -1.767684057563723155e-01 8.662183480704224170e-01 1.072951024509228191e+00 -1.767684057563723155e-01 8.662183480704224170e-01
-1.050605790907119808e-01 1.250340003136949152e+00 8.462183480704227323e-01 -1.050605790907119808e-01 1.250340003136949152e+00 8.462183480704227323e-01
6.190257131412806313e-01 1.738321745218727177e+00 7.862183480704225680e-01 6.190257131412806313e-01 1.738321745218727177e+00 7.862183480704225680e-01
1.518001043541656658e+00 1.485947760031770537e-01 7.662183480704225502e-01 1.518001043541656658e+00 1.485947760031770537e-01 7.662183480704225502e-01
-5.717801406411648912e-03 2.154890559759734536e-01 6.462183480704224436e-01 -5.717801406411648912e-03 2.154890559759734536e-01 6.462183480704224436e-01
1.235113307761508850e+00 -3.188816597861099389e-02 6.062183480704225191e-01 1.235113307761508850e+00 -3.188816597861099389e-02 6.062183480704225191e-01
-1.210127808798957538e-01 1.032776286731880377e+00 5.862183480704227234e-01 -1.210127808798957538e-01 1.032776286731880377e+00 5.862183480704227234e-01
4.251928660165428253e-01 -7.144230253671624009e-02 5.462183480704224658e-01 4.251928660165428253e-01 -7.144230253671624009e-02 5.462183480704224658e-01
4.450743919964264550e-01 1.602240748701409423e+00 5.262183480704223371e-01 4.450743919964264550e-01 1.602240748701409423e+00 5.262183480704223371e-01
-7.876737860971061433e-02 5.313193404388328878e-01 4.862183480704224681e-01 -7.876737860971061433e-02 5.313193404388328878e-01 4.862183480704224681e-01
9.225880065558034193e-02 1.267678227809271085e+00 4.262183480704225813e-01 9.225880065558034193e-02 1.267678227809271085e+00 4.262183480704225813e-01
2.216830281135713232e-01 1.655237581193444996e-01 3.862183480704226568e-01 2.216830281135713232e-01 1.655237581193444996e-01 3.862183480704226568e-01
7.519060188204971240e-01 1.559145773507510047e+00 3.662183480704224170e-01 7.519060188204971240e-01 1.559145773507510047e+00 3.662183480704224170e-01
2.845407625059581669e-03 8.249677369669889959e-01 3.262183480704224925e-01 2.845407625059581669e-03 8.249677369669889959e-01 3.262183480704224925e-01
1.769179070245157082e-01 4.555453989740346210e-01 2.262183480704225147e-01 1.769179070245157082e-01 4.555453989740346210e-01 2.262183480704225147e-01
1.000652251814833082e+00 2.026543926218282721e-01 1.862183480704224792e-01 1.000652251814833082e+00 2.026543926218282721e-01 1.862183480704224792e-01
2.267202402122341365e-01 1.009538897089845344e+00 1.662183480704223504e-01 2.267202402122341365e-01 1.009538897089845344e+00 1.662183480704223504e-01
5.014040269093054114e-01 3.081591753234034226e-01 1.262183480704223149e-01 5.014040269093054114e-01 3.081591753234034226e-01 1.262183480704223149e-01
6.494352779145391441e-01 1.247159720853360909e+00 1.062183480704222971e-01 6.494352779145391441e-01 1.247159720853360909e+00 1.062183480704222971e-01
3.499848110408090851e-01 7.090280402240399793e-01 6.621834807042259463e-02 3.499848110408090851e-01 7.090280402240399793e-01 6.621834807042259463e-02
7.768533511836606120e-01 4.549675380547013037e-01 2.621834807042255910e-02 7.768533511836606120e-01 4.549675380547013037e-01 2.621834807042255910e-02
5.871987303076532383e-01 9.372306500648636129e-01 6.218348070422541340e-03 5.871987303076532383e-01 9.372306500648636129e-01 6.218348070422541340e-03
9.015290017523593935e-01 7.618129037999450404e-01 -1.378165192957747642e-02 9.015290017523593935e-01 7.618129037999450404e-01 -1.378165192957747642e-02
1.865881416057654674e+00 3.055829447643823915e+00 3.897247818824658872e+00 1.865881416057654674e+00 3.055829447643823915e+00 3.897247818824658872e+00
1.908463921285402209e+00 3.366916942822897774e+00 3.637247818824659085e+00 1.908463921285402209e+00 3.366916942822897774e+00 3.637247818824659085e+00
1.464139830497726447e+00 3.530174277391192827e+00 3.537247818824658996e+00 1.464139830497726447e+00 3.530174277391192827e+00 3.537247818824658996e+00
1.786411666479239768e+00 3.565186747263739520e+00 3.377247818824658854e+00 1.786411666479239768e+00 3.565186747263739520e+00 3.377247818824658854e+00
7.765539605051452465e-01 3.318259867392916895e+00 3.177247818824658676e+00 7.765539605051452465e-01 3.318259867392916895e+00 3.177247818824658676e+00
1.589660694594751345e+00 3.655106760765833407e+00 3.117247818824658623e+00 1.589660694594751345e+00 3.655106760765833407e+00 3.117247818824658623e+00
2.353282812812335756e+00 3.210079518552048761e+00 3.057247818824659014e+00 2.353282812812335756e+00 3.210079518552048761e+00 3.057247818824659014e+00
2.461585012274553286e+00 2.332369013906485655e+00 2.997247818824658960e+00 2.461585012274553286e+00 2.332369013906485655e+00 2.997247818824658960e+00
1.925980692582953457e+00 3.568736259123987953e+00 2.957247818824658925e+00 1.925980692582953457e+00 3.568736259123987953e+00 2.957247818824658925e+00
6.525370167011443900e-01 3.143674955267650617e+00 2.917247818824658889e+00 6.525370167011443900e-01 3.143674955267650617e+00 2.917247818824658889e+00
2.480301279865454234e+00 2.887633311189898411e+00 2.897247818824658872e+00 2.480301279865454234e+00 2.887633311189898411e+00 2.897247818824658872e+00
1.376623308933137002e+00 3.631656697349428864e+00 2.857247818824658836e+00 1.376623308933137002e+00 3.631656697349428864e+00 2.857247818824658836e+00
2.193601294950260350e+00 3.353856702032486314e+00 2.797247818824658783e+00 2.193601294950260350e+00 3.353856702032486314e+00 2.797247818824658783e+00
2.462276926747546391e+00 2.548238542886460678e+00 2.737247818824658729e+00 2.462276926747546391e+00 2.548238542886460678e+00 2.737247818824658729e+00
7.518797943854447219e-01 2.108824008106675141e+00 2.717247818824658712e+00 7.518797943854447219e-01 2.108824008106675141e+00 2.717247818824658712e+00
1.182790461808399307e+00 1.821892649593985336e+00 2.617247818824658623e+00 1.182790461808399307e+00 1.821892649593985336e+00 2.617247818824658623e+00
1.202671987788282770e+00 3.495575700832111110e+00 2.597247818824658605e+00 1.202671987788282770e+00 3.495575700832111110e+00 2.597247818824658605e+00
6.788302171821457565e-01 2.424654292569534686e+00 2.557247818824658570e+00 6.788302171821457565e-01 2.424654292569534686e+00 2.557247818824658570e+00
1.971882620035611211e+00 3.390895977389704719e+00 2.537247818824658996e+00 1.971882620035611211e+00 3.390895977389704719e+00 2.537247818824658996e+00
8.498563964474367127e-01 3.161013179939972773e+00 2.497247818824658960e+00 8.498563964474367127e-01 3.161013179939972773e+00 2.497247818824658960e+00
9.792806239054276940e-01 2.058858710250046187e+00 2.457247818824658925e+00 9.792806239054276940e-01 2.058858710250046187e+00 2.457247818824658925e+00
2.048944701022912263e+00 2.093245580395698191e+00 2.417247818824658889e+00 2.048944701022912263e+00 2.093245580395698191e+00 2.417247818824658889e+00
2.102323459579978238e+00 3.118207236710748731e+00 2.377247818824658854e+00 2.102323459579978238e+00 3.118207236710748731e+00 2.377247818824658854e+00
1.399854702744680157e+00 1.946048795297914857e+00 2.357247818824658836e+00 1.399854702744680157e+00 1.946048795297914857e+00 2.357247818824658836e+00
9.345155028163720790e-01 2.348880351104736253e+00 2.297247818824658783e+00 9.345155028163720790e-01 2.348880351104736253e+00 2.297247818824658783e+00
1.730470333798183269e+00 3.261806479979333595e+00 2.277247818824658765e+00 1.730470333798183269e+00 3.261806479979333595e+00 2.277247818824658765e+00
1.758249847606689453e+00 2.095989344752529959e+00 2.257247818824658747e+00 1.758249847606689453e+00 2.095989344752529959e+00 2.257247818824658747e+00
9.843178360040905073e-01 2.902873849220547253e+00 2.237247818824658729e+00 9.843178360040905073e-01 2.902873849220547253e+00 2.237247818824658729e+00
1.407032873706395515e+00 3.140494672984062596e+00 2.177247818824658676e+00 1.407032873706395515e+00 3.140494672984062596e+00 2.177247818824658676e+00
1.893989571898684776e+00 2.401974464871329484e+00 2.157247818824658658e+00 1.893989571898684776e+00 2.401974464871329484e+00 2.157247818824658658e+00
1.751939915581259610e+00 2.943747554529092980e+00 2.117247818824658623e+00 1.751939915581259610e+00 2.943747554529092980e+00 2.117247818824658623e+00
1.344796326099509498e+00 2.830565602195565411e+00 2.077247818824658587e+00 1.344796326099509498e+00 2.830565602195565411e+00 2.077247818824658587e+00
1.526660925023771265e+00 3.576220131818161896e+00 2.118696687295794412e+00 1.526660925023771265e+00 3.576220131818161896e+00 2.118696687295794412e+00
1.775346710387352811e+00 3.794974506590775398e+00 2.078696687295794376e+00 1.775346710387352811e+00 3.794974506590775398e+00 2.078696687295794376e+00
1.394903579099796564e+00 4.114390400344261955e+00 2.038696687295794341e+00 1.394903579099796564e+00 4.114390400344261955e+00 2.038696687295794341e+00
1.843047516805410346e+00 3.437811652295049925e+00 2.018696687295794323e+00 1.843047516805410346e+00 3.437811652295049925e+00 2.018696687295794323e+00
9.853733785059803907e-01 3.654454206280937534e+00 1.998696687295794305e+00 9.853733785059803907e-01 3.654454206280937534e+00 1.998696687295794305e+00
1.823275953714140529e+00 4.103402477509696666e+00 1.978696687295794288e+00 1.823275953714140529e+00 4.103402477509696666e+00 1.978696687295794288e+00
1.487066902188658890e+00 3.150055182061254566e+00 1.958696687295794270e+00 1.487066902188658890e+00 3.150055182061254566e+00 1.958696687295794270e+00
2.087278115720986094e+00 3.666729936925881450e+00 1.918696687295794234e+00 2.087278115720986094e+00 3.666729936925881450e+00 1.918696687295794234e+00
9.773193836288476266e-01 3.309108758542584017e+00 1.898696687295794217e+00 9.773193836288476266e-01 3.309108758542584017e+00 1.898696687295794217e+00
1.577269012168385665e+00 4.361267802109930258e+00 1.878696687295794199e+00 1.577269012168385665e+00 4.361267802109930258e+00 1.878696687295794199e+00
7.918511405092741873e-01 3.876421976169286854e+00 1.838696687295794163e+00 7.918511405092741873e-01 3.876421976169286854e+00 1.838696687295794163e+00
1.171131014435957685e+00 4.403999823513567335e+00 1.778696687295794110e+00 1.171131014435957685e+00 4.403999823513567335e+00 1.778696687295794110e+00
7.245224573769701859e-01 3.454974014936881055e+00 1.738696687295794074e+00 7.245224573769701859e-01 3.454974014936881055e+00 1.738696687295794074e+00
1.865858458941888065e+00 4.414489972688770969e+00 1.718696687295794279e+00 1.865858458941888065e+00 4.414489972688770969e+00 1.718696687295794279e+00
1.668508981800330027e+00 2.909035844261180337e+00 1.698696687295794261e+00 1.668508981800330027e+00 2.909035844261180337e+00 1.698696687295794261e+00
7.825455335372630827e-01 4.173807170308094783e+00 1.678696687295794465e+00 7.825455335372630827e-01 4.173807170308094783e+00 1.678696687295794465e+00
9.349141341671758365e-01 3.038653983938565339e+00 1.638696687295794208e+00 9.349141341671758365e-01 3.038653983938565339e+00 1.638696687295794208e+00
2.156618233799330042e+00 4.300350052630119713e+00 1.558696687295794359e+00 2.156618233799330042e+00 4.300350052630119713e+00 1.558696687295794359e+00
1.372622174088199642e+00 2.801439268464836374e+00 1.538696687295794119e+00 1.372622174088199642e+00 2.801439268464836374e+00 1.538696687295794119e+00
1.743806204135725624e+00 4.612759777129612715e+00 1.458696687295794270e+00 1.743806204135725624e+00 4.612759777129612715e+00 1.458696687295794270e+00
2.374650128563336793e+00 4.052233887737056506e+00 1.398696687295794217e+00 2.374650128563336793e+00 4.052233887737056506e+00 1.398696687295794217e+00
1.042890229593626872e+00 2.841493537749798293e+00 1.378696687295794199e+00 1.042890229593626872e+00 2.841493537749798293e+00 1.378696687295794199e+00
1.208092731752046234e+00 4.643419033302356169e+00 1.358696687295794181e+00 1.208092731752046234e+00 4.643419033302356169e+00 1.358696687295794181e+00
5.115856093327817433e-01 3.521450350734330215e+00 1.318696687295794145e+00 5.115856093327817433e-01 3.521450350734330215e+00 1.318696687295794145e+00
2.062704102972864995e+00 4.499116101603100049e+00 1.298696687295794128e+00 2.062704102972864995e+00 4.499116101603100049e+00 1.298696687295794128e+00
2.095655761122194427e+00 2.924782824993233277e+00 1.178696687295794243e+00 2.095655761122194427e+00 2.924782824993233277e+00 1.178696687295794243e+00
1.000896674819403698e+00 4.587365411347468225e+00 1.098696687295794394e+00 1.000896674819403698e+00 4.587365411347468225e+00 1.098696687295794394e+00
5.595868370951723181e-01 3.312570683707901420e+00 1.058696687295794137e+00 5.595868370951723181e-01 3.312570683707901420e+00 1.058696687295794137e+00
1.883375230239439313e+00 4.616309288989860704e+00 1.038696687295794119e+00 1.883375230239439313e+00 4.616309288989860704e+00 1.038696687295794119e+00
6.099315543576302456e-01 4.191247985133523812e+00 9.986966872957944164e-01 6.099315543576302456e-01 4.191247985133523812e+00 9.986966872957944164e-01
2.437695817521940089e+00 3.935206341055771162e+00 9.786966872957942876e-01 2.437695817521940089e+00 3.935206341055771162e+00 9.786966872957942876e-01
1.334017846589622858e+00 4.679229727215301615e+00 9.386966872957942520e-01 1.334017846589622858e+00 4.679229727215301615e+00 9.386966872957942520e-01
2.232993176989999107e+00 3.089502757999751381e+00 9.186966872957942343e-01 2.232993176989999107e+00 3.089502757999751381e+00 9.186966872957942343e-01
2.150995832606746205e+00 4.401429731898359066e+00 8.786966872957943098e-01 2.150995832606746205e+00 4.401429731898359066e+00 8.786966872957943098e-01
8.508430654351754052e-01 4.432717878592873362e+00 8.386966872957941632e-01 8.508430654351754052e-01 4.432717878592873362e+00 8.386966872957941632e-01
2.419671464404032246e+00 3.595811572752333429e+00 8.186966872957941455e-01 2.419671464404032246e+00 3.595811572752333429e+00 8.186966872957941455e-01
7.092743320419305775e-01 3.156397037972547892e+00 7.986966872957941277e-01 7.092743320419305775e-01 3.156397037972547892e+00 7.986966872957941277e-01
1.666688325509960489e+00 4.624739806310897094e+00 7.786966872957941099e-01 1.666688325509960489e+00 4.624739806310897094e+00 7.786966872957941099e-01
1.950105441209851076e+00 2.909019816017963223e+00 7.586966872957942032e-01 1.950105441209851076e+00 2.909019816017963223e+00 7.586966872957942032e-01
5.939793525684464726e-01 3.973684268728455038e+00 7.386966872957944075e-01 5.939793525684464726e-01 3.973684268728455038e+00 7.386966872957944075e-01
1.140184999464885163e+00 2.869465679459858087e+00 6.986966872957941499e-01 1.140184999464885163e+00 2.869465679459858087e+00 6.986966872957941499e-01
1.160066525444768626e+00 4.543148730697984305e+00 6.786966872957940211e-01 1.160066525444768626e+00 4.543148730697984305e+00 6.786966872957940211e-01
6.362247548386316121e-01 3.472227322435407437e+00 6.386966872957942076e-01 6.362247548386316121e-01 3.472227322435407437e+00 6.386966872957942076e-01
2.293208056402855632e+00 3.788456266172151032e+00 5.586966872957943586e-01 2.293208056402855632e+00 3.788456266172151032e+00 5.586966872957943586e-01
9.366751615619135496e-01 3.106431740115918938e+00 5.386966872957943409e-01 9.366751615619135496e-01 3.106431740115918938e+00 5.386966872957943409e-01
1.466898152268839350e+00 4.500053755504084485e+00 5.186966872957941010e-01 1.466898152268839350e+00 4.500053755504084485e+00 5.186966872957941010e-01
7.178375410734018081e-01 3.765875718963563656e+00 4.786966872957941765e-01 7.178375410734018081e-01 3.765875718963563656e+00 4.786966872957941765e-01
8.919100404728579345e-01 3.396453380970609004e+00 3.786966872957941987e-01 8.919100404728579345e-01 3.396453380970609004e+00 3.786966872957941987e-01
1.715644385263175309e+00 3.143562374618402711e+00 3.386966872957941632e-01 1.715644385263175309e+00 3.143562374618402711e+00 3.386966872957941632e-01
9.417123736605763629e-01 3.950446879086420005e+00 3.186966872957940344e-01 9.417123736605763629e-01 3.950446879086420005e+00 3.186966872957940344e-01
2.005886942945061424e+00 3.880424343290057809e+00 2.986966872957940167e-01 2.005886942945061424e+00 3.880424343290057809e+00 2.986966872957940167e-01
1.216396160357647638e+00 3.249067157319977639e+00 2.786966872957939989e-01 1.216396160357647638e+00 3.249067157319977639e+00 2.786966872957939989e-01
1.851384109555170632e+00 3.449547494737202236e+00 2.386966872957942964e-01 1.851384109555170632e+00 3.449547494737202236e+00 2.386966872957942964e-01
1.064976944489151256e+00 3.649936022220614529e+00 2.186966872957942787e-01 1.064976944489151256e+00 3.649936022220614529e+00 2.186966872957942787e-01
1.709334453237745466e+00 3.991320584394965731e+00 1.986966872957941499e-01 1.709334453237745466e+00 3.991320584394965731e+00 1.986966872957941499e-01
1.491845484632002838e+00 3.395875520051275576e+00 1.786966872957942432e-01 1.491845484632002838e+00 3.395875520051275576e+00 1.786966872957942432e-01
1.302190863755995354e+00 3.878138632061438162e+00 1.586966872957942254e-01 1.302190863755995354e+00 3.878138632061438162e+00 1.586966872957942254e-01
1.616521135200701620e+00 3.702720885796519479e+00 1.386966872957942076e-01 1.616521135200701620e+00 3.702720885796519479e+00 1.386966872957942076e-01
1.498891173135005639e+00 1.561770342415012225e+00 1.147174340578713370e+00 1.498891173135005639e+00 1.561770342415012225e+00 1.147174340578713370e+00
1.599458778951619475e+00 1.833933180575086253e+00 9.871743405787133385e-01 1.599458778951619475e+00 1.833933180575086253e+00 9.871743405787133385e-01
2.096836746315991817e+00 3.389692013226994760e-01 9.071743405787133785e-01 2.096836746315991817e+00 3.389692013226994760e-01 9.071743405787133785e-01
1.800949938603861433e+00 2.313726255263557352e-01 7.471743405787132364e-01 1.800949938603861433e+00 2.313726255263557352e-01 7.471743405787132364e-01
1.362456462704404458e+00 1.882463030240832724e+00 7.271743405787134407e-01 1.362456462704404458e+00 1.882463030240832724e+00 7.271743405787134407e-01
2.802977893078998584e+00 1.482167244798575867e+00 6.071743405787134451e-01 2.802977893078998584e+00 1.482167244798575867e+00 6.071743405787134451e-01
1.636420496267708025e+00 2.073352390363875308e+00 5.671743405787132986e-01 1.636420496267708025e+00 2.073352390363875308e+00 5.671743405787132986e-01
2.491031867488526785e+00 1.929049458664618744e+00 5.071743405787133563e-01 2.491031867488526785e+00 1.929049458664618744e+00 5.071743405787133563e-01
1.162276262677292893e+00 1.795766254320308786e+00 4.671743405787134318e-01 1.162276262677292893e+00 1.795766254320308786e+00 4.671743405787134318e-01
1.975382996766898991e+00 2.132613147693225297e+00 4.071743405787132120e-01 1.975382996766898991e+00 2.132613147693225297e+00 4.071743405787132120e-01
1.659554307060042255e+00 1.679885128611590117e-01 3.271743405787133629e-01 1.659554307060042255e+00 1.679885128611590117e-01 3.271743405787133629e-01
2.216270922473232208e+00 1.940729333017212621e-01 2.271743405787132186e-01 2.216270922473232208e+00 1.940729333017212621e-01 2.271743405787132186e-01
1.038259318873292036e+00 1.621181342195042729e+00 2.071743405787135617e-01 1.038259318873292036e+00 1.621181342195042729e+00 2.071743405787135617e-01
2.866023582037601880e+00 1.365139698117290523e+00 1.871743405787134606e-01 2.866023582037601880e+00 1.365139698117290523e+00 1.871743405787134606e-01
1.762345611105284648e+00 2.109163084276820754e+00 1.471743405787133974e-01 1.762345611105284648e+00 2.109163084276820754e+00 1.471743405787133974e-01
2.661320941505660898e+00 5.194361150612706313e-01 1.271743405787133796e-01 2.661320941505660898e+00 5.194361150612706313e-01 1.271743405787133796e-01
2.579323597122407996e+00 1.831363088959878205e+00 8.717434057871342734e-02 2.579323597122407996e+00 1.831363088959878205e+00 8.717434057871342734e-02
2.847999228919694037e+00 1.025744929813852568e+00 2.717434057871320752e-02 2.847999228919694037e+00 1.025744929813852568e+00 2.717434057871320752e-02
1.137602096557592368e+00 5.863303950340670312e-01 7.174340578713245264e-03 1.137602096557592368e+00 5.863303950340670312e-01 7.174340578713245264e-03
2.378433205725512867e+00 3.389531730794825837e-01 -3.282565942128667924e-02 2.378433205725512867e+00 3.389531730794825837e-01 -3.282565942128667924e-02
1.022307117084108263e+00 1.403617625789973955e+00 -5.282565942128647496e-02 1.022307117084108263e+00 1.403617625789973955e+00 -5.282565942128647496e-02
1.588394289960430417e+00 1.973082087759503001e+00 -1.128256594212868058e-01 1.588394289960430417e+00 1.973082087759503001e+00 -1.128256594212868058e-01
2.691581406201422499e+00 7.393743486529607001e-01 -1.328256594212867125e-01 2.691581406201422499e+00 7.393743486529607001e-01 -1.328256594212867125e-01
1.064552519354293292e+00 9.021606794969264653e-01 -1.528256594212867303e-01 1.064552519354293292e+00 9.021606794969264653e-01 -1.528256594212867303e-01
1.235578698619584248e+00 1.638519566867364663e+00 -2.128256594212866171e-01 1.235578698619584248e+00 1.638519566867364663e+00 -2.128256594212866171e-01
2.721535820918517423e+00 1.218389623233670171e+00 -2.328256594212865238e-01 2.721535820918517423e+00 1.218389623233670171e+00 -2.328256594212865238e-01
1.365002926077575340e+00 5.363650971774380771e-01 -2.528256594212865416e-01 1.365002926077575340e+00 5.363650971774380771e-01 -2.528256594212865416e-01
1.895225916784501141e+00 1.929987112565603624e+00 -2.728256594212867814e-01 1.895225916784501141e+00 1.929987112565603624e+00 -2.728256594212867814e-01
1.146165305589063710e+00 1.195809076025082573e+00 -3.128256594212867059e-01 1.146165305589063710e+00 1.195809076025082573e+00 -3.128256594212867059e-01
2.488045761752125884e+00 1.595713623638140399e+00 -3.328256594212865016e-01 2.488045761752125884e+00 1.595713623638140399e+00 -3.328256594212865016e-01
1.320237804988519725e+00 8.263867380321281431e-01 -4.128256594212866837e-01 1.320237804988519725e+00 8.263867380321281431e-01 -4.128256594212866837e-01
2.143972149778837100e+00 5.734957316799218496e-01 -4.528256594212867192e-01 2.143972149778837100e+00 5.734957316799218496e-01 -4.528256594212867192e-01
1.370040138176238154e+00 1.380380236147938922e+00 -4.728256594212868480e-01 1.370040138176238154e+00 1.380380236147938922e+00 -4.728256594212868480e-01
2.434214707460723215e+00 1.310357700351576948e+00 -4.928256594212868658e-01 2.434214707460723215e+00 1.310357700351576948e+00 -4.928256594212868658e-01
1.644723924873309429e+00 6.790005143814970001e-01 -5.128256594212868835e-01 1.644723924873309429e+00 6.790005143814970001e-01 -5.128256594212868835e-01
1.792755175878543161e+00 1.618001059911454487e+00 -5.328256594212869013e-01 1.792755175878543161e+00 1.618001059911454487e+00 -5.328256594212869013e-01
1.493304709004813047e+00 1.079869379282133446e+00 -5.728256594212866037e-01 1.493304709004813047e+00 1.079869379282133446e+00 -5.728256594212866037e-01
2.137662217753407479e+00 1.421253941456485093e+00 -5.928256594212867325e-01 2.137662217753407479e+00 1.421253941456485093e+00 -5.928256594212867325e-01
1.920173249147664629e+00 8.258088771127949368e-01 -6.128256594212866393e-01 1.920173249147664629e+00 8.258088771127949368e-01 -6.128256594212866393e-01
1.730518628271657144e+00 1.308071989122957302e+00 -6.328256594212866570e-01 1.730518628271657144e+00 1.308071989122957302e+00 -6.328256594212866570e-01
2.044848899716363633e+00 1.132654242858038618e+00 -6.528256594212866748e-01 2.044848899716363633e+00 1.132654242858038618e+00 -6.528256594212866748e-01
2.052672470775167568e+00 1.465604298451955279e+00 4.509462214668841007e+00 2.052672470775167568e+00 1.465604298451955279e+00 4.509462214668841007e+00
2.301358256138748892e+00 1.684358673224569225e+00 4.469462214668840971e+00 2.301358256138748892e+00 1.684358673224569225e+00 4.469462214668840971e+00
1.920915124851192646e+00 2.003774566978055560e+00 4.429462214668840936e+00 1.920915124851192646e+00 2.003774566978055560e+00 4.429462214668840936e+00
1.511384924257376472e+00 1.543838372914731139e+00 4.389462214668840900e+00 1.511384924257376472e+00 1.543838372914731139e+00 4.389462214668840900e+00
2.013078447940054971e+00 1.039439348695048171e+00 4.349462214668840865e+00 2.013078447940054971e+00 1.039439348695048171e+00 4.349462214668840865e+00
1.503330929380243708e+00 1.198492925176377843e+00 4.289462214668841256e+00 1.503330929380243708e+00 1.198492925176377843e+00 4.289462214668841256e+00
2.103280557919781746e+00 2.250651968743723863e+00 4.269462214668840794e+00 2.103280557919781746e+00 2.250651968743723863e+00 4.269462214668840794e+00
2.636866073959069023e+00 1.943894197176744720e+00 4.209462214668841185e+00 2.636866073959069023e+00 1.943894197176744720e+00 4.209462214668841185e+00
1.761357897606558698e+00 8.946548540119205750e-01 4.189462214668840723e+00 1.761357897606558698e+00 8.946548540119205750e-01 4.189462214668840723e+00
2.711593321830950476e+00 1.282531544894785602e+00 4.149462214668840687e+00 2.711593321830950476e+00 1.282531544894785602e+00 4.149462214668840687e+00
1.250534003128366267e+00 1.344358181570674882e+00 4.129462214668841114e+00 1.250534003128366267e+00 1.344358181570674882e+00 4.129462214668841114e+00
2.194520527551726108e+00 7.984200108949739416e-01 4.089462214668841078e+00 2.194520527551726108e+00 7.984200108949739416e-01 4.089462214668841078e+00
1.947545913905608383e+00 2.467131473890859183e+00 4.009462214668841007e+00 1.947545913905608383e+00 2.467131473890859183e+00 4.009462214668841007e+00
1.898633719839595724e+00 6.908234350986302008e-01 3.929462214668840936e+00 1.898633719839595724e+00 6.908234350986302008e-01 3.929462214668840936e+00
1.198582357296629874e+00 1.114654565828802069e+00 3.869462214668840883e+00 1.198582357296629874e+00 1.114654565828802069e+00 3.869462214668840883e+00
2.269817749887121927e+00 2.502143943763405876e+00 3.849462214668840865e+00 2.269817749887121927e+00 2.502143943763405876e+00 3.849462214668840865e+00
2.418062293958102238e+00 7.424374230840757871e-01 3.829462214668840847e+00 2.418062293958102238e+00 7.424374230840757871e-01 3.829462214668840847e+00
1.568901775345022953e+00 7.308777043835921194e-01 3.769462214668840794e+00 1.568901775345022953e+00 7.308777043835921194e-01 3.769462214668840794e+00
1.037597155084177825e+00 1.410834517368124041e+00 3.709462214668840740e+00 1.037597155084177825e+00 1.410834517368124041e+00 3.709462214668840740e+00
1.277888156323663704e+00 9.128257310597110985e-01 3.609462214668840652e+00 1.277888156323663704e+00 9.128257310597110985e-01 3.609462214668840652e+00
1.757238088295776546e+00 6.274393224334334773e-01 3.509462214668841007e+00 1.757238088295776546e+00 6.274393224334334773e-01 3.509462214668841007e+00
2.944991095682435223e+00 1.269326210406152011e+00 3.469462214668840971e+00 2.944991095682435223e+00 1.269326210406152011e+00 3.469462214668840971e+00
1.085598382846568288e+00 1.201954850341695025e+00 3.449462214668840954e+00 1.085598382846568288e+00 1.201954850341695025e+00 3.449462214668840954e+00
2.313954703708966498e+00 6.535237428739957277e-01 3.409462214668840474e+00 2.313954703708966498e+00 6.535237428739957277e-01 3.409462214668840474e+00
2.963707363273336171e+00 1.824590507689564989e+00 3.369462214668840883e+00 2.963707363273336171e+00 1.824590507689564989e+00 3.369462214668840883e+00
2.677007378358142287e+00 2.290813898532152670e+00 3.269462214668840794e+00 2.677007378358142287e+00 2.290813898532152670e+00 3.269462214668840794e+00
2.945683010155428327e+00 1.485195739386127034e+00 3.209462214668840740e+00 2.945683010155428327e+00 1.485195739386127034e+00 3.209462214668840740e+00
1.235285877793326659e+00 1.045781204606341497e+00 3.189462214668840723e+00 1.235285877793326659e+00 1.045781204606341497e+00 3.189462214668840723e+00
2.476116986961247157e+00 7.984039826517570493e-01 3.149462214668840687e+00 2.476116986961247157e+00 7.984039826517570493e-01 3.149462214668840687e+00
1.666196545216281244e+00 7.588498460936518031e-01 3.089462214668840634e+00 1.666196545216281244e+00 7.588498460936518031e-01 3.089462214668840634e+00
2.789265187437156790e+00 1.198825158225235166e+00 3.049462214668840598e+00 2.789265187437156790e+00 1.198825158225235166e+00 3.049462214668840598e+00
1.162236300590027582e+00 1.361611489069201042e+00 3.029462214668840581e+00 1.162236300590027582e+00 1.361611489069201042e+00 3.029462214668840581e+00
1.462686707313309631e+00 9.958159067497125427e-01 2.929462214668840936e+00 1.462686707313309631e+00 9.958159067497125427e-01 2.929462214668840936e+00
2.585729542987860174e+00 2.055164433210414643e+00 2.849462214668840865e+00 2.585729542987860174e+00 2.055164433210414643e+00 2.849462214668840865e+00
1.417921586224254016e+00 1.285837547604402609e+00 2.769462214668840794e+00 1.417921586224254016e+00 1.285837547604402609e+00 2.769462214668840794e+00
2.241655931014571390e+00 1.032946541252196315e+00 2.729462214668840758e+00 2.241655931014571390e+00 1.032946541252196315e+00 2.729462214668840758e+00
1.590988490240547337e+00 1.539320188854407911e+00 2.609462214668840652e+00 1.590988490240547337e+00 1.539320188854407911e+00 2.609462214668840652e+00
2.235345998989141769e+00 1.880704751028759558e+00 2.589462214668840634e+00 2.235345998989141769e+00 1.880704751028759558e+00 2.589462214668840634e+00
2.017857030383398698e+00 1.285259686685069402e+00 2.569462214668840616e+00 2.017857030383398698e+00 1.285259686685069402e+00 2.569462214668840616e+00
2.142532680952097479e+00 1.592105052430313084e+00 2.529462214668840581e+00 2.142532680952097479e+00 1.592105052430313084e+00 2.529462214668840581e+00
8.786713633320288874e-01 2.337687016956500052e+00 4.725729371674566082e+00 8.786713633320288874e-01 2.337687016956500052e+00 4.725729371674566082e+00
1.127357148695610434e+00 2.556441391729113555e+00 4.685729371674566046e+00 1.127357148695610434e+00 2.556441391729113555e+00 4.685729371674566046e+00
7.469140174080540762e-01 2.875857285482600112e+00 4.645729371674566011e+00 7.469140174080540762e-01 2.875857285482600112e+00 4.645729371674566011e+00
3.373838168142380134e-01 2.415921091419275690e+00 4.605729371674565975e+00 3.373838168142380134e-01 2.415921091419275690e+00 4.605729371674565975e+00
8.390773404969165128e-01 1.911522067199592723e+00 4.565729371674565940e+00 8.390773404969165128e-01 1.911522067199592723e+00 4.565729371674565940e+00
4.225738469276014153e-01 2.893303870491831020e+00 4.545729371674566366e+00 4.225738469276014153e-01 2.893303870491831020e+00 4.545729371674566366e+00
1.439288554029243494e+00 2.428196822064219607e+00 4.525729371674565904e+00 1.439288554029243494e+00 2.428196822064219607e+00 4.525729371674565904e+00
9.292794504766433983e-01 3.122734687248268415e+00 4.485729371674565868e+00 9.292794504766433983e-01 3.122734687248268415e+00 4.485729371674565868e+00
1.206214786250508375e+00 1.900207175075971033e+00 4.465729371674566295e+00 1.206214786250508375e+00 1.900207175075971033e+00 4.465729371674566295e+00
1.438615788175318100e-01 2.637888861307625010e+00 4.445729371674565833e+00 1.438615788175318100e-01 2.637888861307625010e+00 4.445729371674565833e+00
5.873567901634201283e-01 1.766737572516465127e+00 4.405729371674565797e+00 5.873567901634201283e-01 1.766737572516465127e+00 4.405729371674565797e+00
5.231414527442154183e-01 3.165466708651905492e+00 4.385729371674566224e+00 5.231414527442154183e-01 3.165466708651905492e+00 4.385729371674566224e+00
7.653289568522780861e-02 2.216440900075219211e+00 4.345729371674566188e+00 7.653289568522780861e-02 2.216440900075219211e+00 4.345729371674566188e+00
1.020519420108587649e+00 1.670502729399518493e+00 4.305729371674566153e+00 1.020519420108587649e+00 1.670502729399518493e+00 4.305729371674566153e+00
1.345559718455207054e-01 2.935274055446433383e+00 4.285729371674565691e+00 1.345559718455207054e-01 2.935274055446433383e+00 4.285729371674565691e+00
7.735448064624699249e-01 3.339214192395403735e+00 4.225729371674566082e+00 7.735448064624699249e-01 3.339214192395403735e+00 4.225729371674566082e+00
-6.518514843980116602e-02 2.491974600511019045e+00 4.185729371674566046e+00 -6.518514843980116602e-02 2.491974600511019045e+00 4.185729371674566046e+00
7.246326123964573762e-01 1.562906153603174753e+00 4.145729371674566011e+00 7.246326123964573762e-01 1.562906153603174753e+00 4.145729371674566011e+00
1.095816642443983246e+00 3.374226662267950427e+00 4.065729371674565940e+00 1.095816642443983246e+00 3.374226662267950427e+00 4.065729371674565940e+00
3.949006679018844390e-01 1.602960422888136671e+00 3.985729371674565868e+00 3.949006679018844390e-01 1.602960422888136671e+00 3.985729371674565868e+00
5.601031700603039676e-01 3.404885918440694326e+00 3.965729371674565851e+00 5.601031700603039676e-01 3.404885918440694326e+00 3.965729371674565851e+00
-1.364039523589606340e-01 2.282917235872668371e+00 3.925729371674565815e+00 -1.364039523589606340e-01 2.282917235872668371e+00 3.925729371674565815e+00
8.595893646988872483e-02 3.127299782397127803e+00 3.865729371674565762e+00 8.595893646988872483e-02 3.127299782397127803e+00 3.865729371674565762e+00
8.990656705594947118e-01 3.464146675770044315e+00 3.805729371674565709e+00 8.990656705594947118e-01 3.464146675770044315e+00 3.805729371674565709e+00
-8.840272459657005921e-02 2.074037568846239576e+00 3.665729371674566028e+00 -8.840272459657005921e-02 2.074037568846239576e+00 3.665729371674566028e+00
-3.805800733411213166e-02 2.952714870271861969e+00 3.605729371674565975e+00 -3.805800733411213166e-02 2.952714870271861969e+00 3.605729371674565975e+00
6.860282848978804804e-01 3.440696612353639772e+00 3.545729371674565922e+00 6.860282848978804804e-01 3.440696612353639772e+00 3.545729371674565922e+00
6.128477035018820018e-02 1.917863923110886049e+00 3.405729371674565797e+00 6.128477035018820018e-02 1.917863923110886049e+00 3.405729371674565797e+00
-5.401020912329590473e-02 2.735151153866793194e+00 3.345729371674566188e+00 -5.401020912329590473e-02 2.735151153866793194e+00 3.345729371674566188e+00
4.921954377731426744e-01 1.630932564598196244e+00 3.305729371674565709e+00 4.921954377731426744e-01 1.630932564598196244e+00 3.305729371674565709e+00
5.120769637530262486e-01 3.304615615836322018e+00 3.285729371674565691e+00 5.120769637530262486e-01 3.304615615836322018e+00 3.285729371674565691e+00
-1.176480685311076524e-02 2.233694207573745594e+00 3.245729371674565655e+00 -1.176480685311076524e-02 2.233694207573745594e+00 3.245729371674565655e+00
1.592613724121801910e-01 2.970053094944183680e+00 3.185729371674566046e+00 1.592613724121801910e-01 2.970053094944183680e+00 3.185729371674566046e+00
2.886855998701711723e-01 1.867898625254257094e+00 3.145729371674566011e+00 2.886855998701711723e-01 1.867898625254257094e+00 3.145729371674566011e+00
2.439204787811155573e-01 2.157920266108947160e+00 2.985729371674565868e+00 2.439204787811155573e-01 2.157920266108947160e+00 2.985729371674565868e+00
2.937228119688339856e-01 2.711913764224758161e+00 2.925729371674565815e+00 2.937228119688339856e-01 2.711913764224758161e+00 2.925729371674565815e+00
5.684065986659052605e-01 2.010534042458315795e+00 2.885729371674565780e+00 5.684065986659052605e-01 2.010534042458315795e+00 2.885729371674565780e+00
4.169873827974089342e-01 2.411402907358952685e+00 2.825729371674565726e+00 4.169873827974089342e-01 2.411402907358952685e+00 2.825729371674565726e+00
